496824.790009 5419059.360001 277.820007
496824.769989 5419058.930000 277.850006
496825.600006 5419058.560001 278.220001
496825.619995 5419058.980000 278.149994
496825.640015 5419059.410000 278.100006
496825.660004 5419059.849998 278.049988
496825.679993 5419060.279999 277.980011
496825.709991 5419060.709999 277.929993
496825.679993 5419060.980000 278.929993
496825.700012 5419061.380001 279.089996
496826.019989 5419066.449997 276.209991
496826.019989 5419066.779999 276.830017
496826.040009 5419067.209999 276.760010
496826.059998 5419067.629997 276.709991
496826.649994 5419069.180000 276.660004
496826.630005 5419068.739998 276.720001
496826.609985 5419068.309998 276.769989
496826.589996 5419067.889999 276.869995
496826.570007 5419067.459999 276.889984
496826.549988 5419067.019997 276.970001
496826.529999 5419066.599998 277.040009
496826.529999 5419066.269997 276.519989
496826.279999 5419062.840000 279.500000
496826.260010 5419062.419998 279.589996
496826.250000 5419062.020000 279.419983
496826.239990 5419061.619999 279.279999
496826.230011 5419061.220001 279.110016
496826.220001 5419060.840000 278.919983
496826.230011 5419060.529999 278.139984
496826.209991 5419060.090000 278.179993
496826.190002 5419059.649998 278.279999
496826.170013 5419059.230000 278.350006
496826.149994 5419058.799999 278.380005
496826.130005 5419058.360001 278.419983
496826.920013 5419057.860001 278.769989
496826.940002 5419058.290001 278.730011
496826.959991 5419058.720001 278.669983
496826.989990 5419059.149998 278.589996
496827.010010 5419059.590000 278.559998
496827.029999 5419060.009998 278.500000
496827.040009 5419060.419998 278.549988
496827.040009 5419060.770000 279.059998
496827.049988 5419061.160000 279.220001
496827.070007 5419061.560001 279.369995
496827.079987 5419061.959999 279.510010
496827.100006 5419062.369999 279.529999
496827.119995 5419062.820000 279.360016
496827.149994 5419063.270000 279.200012
496827.170013 5419063.700001 279.049988
496827.239990 5419064.300003 277.940002
496827.260010 5419064.730003 277.899994
496827.279999 5419065.169998 277.809998
496827.299988 5419065.589996 277.779999
496827.329987 5419066.019997 277.690002
496827.359985 5419066.500000 277.350006
496827.380005 5419066.930000 277.269989
496827.399994 5419067.349998 277.230011
496827.420013 5419067.779999 277.160004
496827.440002 5419068.209999 277.110016
496827.459991 5419068.620003 277.059998
496827.489990 5419069.059998 277.000000
496827.510010 5419069.489998 276.950012
496827.529999 5419069.900002 276.889984
496827.549988 5419070.330002 276.850006
496827.579987 5419070.779999 276.649994
496828.109985 5419071.879997 276.739990
496828.089996 5419071.459999 276.830017
496828.070007 5419071.040001 276.889984
496828.049988 5419070.620003 276.959991
496828.029999 5419070.209999 277.010010
496828.010010 5419069.779999 277.059998
496827.989990 5419069.379997 277.130005
496827.970001 5419068.959999 277.169983
496827.950012 5419068.540001 277.230011
496827.929993 5419068.120003 277.279999
496827.910004 5419067.690002 277.330017
496827.890015 5419067.279999 277.399994
496827.869995 5419066.860001 277.459991
496827.850006 5419066.440002 277.510010
496827.820007 5419065.980003 277.860016
496827.799988 5419065.559998 277.950012
496827.779999 5419065.129997 278.000000
496827.760010 5419064.720001 278.049988
496827.739990 5419064.300003 278.119995
496827.679993 5419063.750000 278.940002
496827.660004 5419063.320000 279.130005
496827.640015 5419062.880001 279.279999
496827.609985 5419062.439999 279.450012
496827.579987 5419062.000000 279.679993
496827.579987 5419061.619999 279.450012
496827.559998 5419061.230000 279.320007
496827.549988 5419060.829998 279.179993
496827.540009 5419060.459999 279.040009
496827.540009 5419060.099998 278.649994
496827.519989 5419059.669998 278.709991
496827.500000 5419059.250000 278.769989
496827.480011 5419058.829998 278.830017
496827.459991 5419058.410000 278.880005
496827.440002 5419057.980000 278.950012
496828.230011 5419057.500000 279.299988
496828.250000 5419057.919998 279.239990
496828.279999 5419058.360001 279.179993
496828.299988 5419058.790001 279.130005
496828.320007 5419059.230000 279.049988
496828.339996 5419059.639999 279.040009
496828.359985 5419060.070000 279.029999
496828.369995 5419060.480000 279.149994
496828.380005 5419060.880001 279.309998
496828.399994 5419061.259998 279.450012
496828.410004 5419061.660000 279.669983
496828.429993 5419062.110001 279.459991
496828.459991 5419062.549999 279.250000
496828.489990 5419063.000000 279.119995
496828.529999 5419063.500000 278.630005
496828.549988 5419063.939999 278.459991
496828.570007 5419064.370003 278.399994
496828.589996 5419064.800003 278.339996
496828.609985 5419065.220001 278.279999
496828.640015 5419065.650002 278.239990
496828.670013 5419066.129997 277.850006
496828.690002 5419066.550003 277.769989
496828.709991 5419066.980003 277.720001
496828.730011 5419067.410004 277.660004
496828.760010 5419067.840004 277.639984
496828.779999 5419068.260002 277.570007
496828.799988 5419068.680000 277.519989
496828.820007 5419069.120003 277.429993
496828.839996 5419069.540001 277.399994
496828.859985 5419069.959999 277.339996
496828.880005 5419070.389999 277.279999
496828.899994 5419070.820000 277.220001
496828.920013 5419071.230003 277.179993
496828.940002 5419071.660004 277.119995
496828.970001 5419072.080002 277.080017
496828.989990 5419072.500000 277.000000
496829.010010 5419072.919998 276.959991
496829.029999 5419073.349998 276.919983
496829.049988 5419073.760002 276.850006
496829.070007 5419074.199997 276.750000
496829.619995 5419075.540001 276.760010
496829.600006 5419075.129997 276.850006
496829.579987 5419074.709999 276.889984
496829.559998 5419074.290001 276.950012
496829.540009 5419073.870003 277.000000
496829.519989 5419073.470001 277.059998
496829.500000 5419073.050003 277.110016
496829.480011 5419072.629997 277.179993
496829.459991 5419072.209999 277.250000
496829.440002 5419071.809998 277.279999
496829.420013 5419071.379997 277.330017
496829.399994 5419070.970001 277.369995
496829.380005 5419070.559998 277.419983
496829.359985 5419070.139999 277.500000
496829.339996 5419069.720001 277.529999
496829.320007 5419069.309998 277.610016
496829.299988 5419068.889999 277.660004
496829.279999 5419068.470001 277.720001
496829.260010 5419068.059998 277.779999
496829.239990 5419067.639999 277.809998
496829.220001 5419067.209999 277.889984
496829.200012 5419066.800003 277.950012
496829.179993 5419066.389999 277.989990
496829.160004 5419065.949997 278.089996
496829.130005 5419065.489998 278.419983
496829.109985 5419065.080002 278.480011
496829.089996 5419064.650002 278.549988
496829.070007 5419064.230003 278.600006
496829.049988 5419063.810001 278.649994
496829.029999 5419063.389999 278.709991
496829.000000 5419062.919998 279.070007
496828.970001 5419062.480000 279.230011
496828.950012 5419062.060001 279.380005
496828.920013 5419061.619999 279.559998
496828.910004 5419061.209999 279.489990
496828.890015 5419060.820000 279.380005
496828.880005 5419060.430000 279.220001
496828.869995 5419060.020000 279.190002
496828.850006 5419059.610001 279.200012
496828.829987 5419059.189999 279.239990
496828.809998 5419058.759998 279.320007
496828.790009 5419058.329998 279.380005
496828.769989 5419057.919998 279.410004
496828.750000 5419057.489998 279.510010
496829.489990 5419057.209999 279.769989
496829.510010 5419057.619999 279.730011
496829.540009 5419058.070000 279.639984
496829.559998 5419058.500000 279.589996
496829.579987 5419058.910000 279.589996
496829.600006 5419059.349998 279.500000
496829.619995 5419059.790001 279.410004
496829.640015 5419060.209999 279.389984
496829.660004 5419060.630001 279.419983
496829.670013 5419061.020000 279.600006
496829.690002 5419061.450001 279.500000
496829.720001 5419061.899998 279.299988
496829.750000 5419062.349998 279.160004
496829.769989 5419062.790001 279.080017
496829.790009 5419063.220001 278.980011
496829.809998 5419063.639999 278.940002
496829.829987 5419064.080002 278.869995
496829.850006 5419064.500000 278.839996
496829.869995 5419064.919998 278.769989
496829.929993 5419065.500000 277.799988
496829.950012 5419065.919998 277.820007
496829.970001 5419066.320000 277.880005
496829.980011 5419066.730003 277.940002
496830.000000 5419067.139999 278.010010
496830.010010 5419067.529999 278.110016
496830.040009 5419067.959999 278.049988
496830.059998 5419068.389999 277.970001
496830.079987 5419068.800003 277.950012
496830.100006 5419069.239998 277.860016
496830.119995 5419069.660004 277.830017
496830.140015 5419070.090004 277.750000
496830.160004 5419070.510002 277.720001
496830.179993 5419070.940002 277.649994
496830.200012 5419071.360001 277.630005
496830.220001 5419071.790001 277.540009
496830.239990 5419072.199997 277.510010
496830.269989 5419072.629997 277.440002
496830.290009 5419073.059998 277.380005
496830.309998 5419073.480003 277.309998
496830.329987 5419073.900002 277.279999
496830.350006 5419074.330002 277.209991
496830.369995 5419074.739998 277.169983
496830.390015 5419075.160004 277.089996
496830.410004 5419075.590004 277.059998
496830.429993 5419076.000000 276.989990
496830.450012 5419076.419998 276.959991
496830.899994 5419076.480003 277.119995
496830.880005 5419076.070000 277.169983
496830.859985 5419075.650002 277.220001
496830.839996 5419075.250000 277.279999
496830.820007 5419074.840004 277.309998
496830.799988 5419074.419998 277.380005
496830.779999 5419074.020004 277.429993
496830.760010 5419073.599998 277.489990
496830.739990 5419073.180000 277.510010
496830.720001 5419072.779999 277.570007
496830.700012 5419072.360001 277.630005
496830.679993 5419071.940002 277.690002
496830.660004 5419071.529999 277.760010
496830.649994 5419071.120003 277.769989
496830.619995 5419070.699997 277.860016
496830.609985 5419070.270004 277.919983
496830.589996 5419069.860001 277.959991
496830.570007 5419069.449997 278.029999
496830.549988 5419069.029999 278.070007
496830.529999 5419068.610001 278.139984
496830.510010 5419068.199997 278.179993
496830.489990 5419067.779999 278.239990
496830.470001 5419067.360001 278.320007
496830.470001 5419067.040001 277.830017
496830.459991 5419066.639999 277.739990
496830.440002 5419066.230003 277.709991
496830.429993 5419065.839996 277.639984
496830.410004 5419065.430000 277.610016
496830.329987 5419064.800003 278.970001
496830.320007 5419064.389999 279.019989
496830.290009 5419063.970001 279.070007
496830.269989 5419063.540001 279.149994
496830.260010 5419063.119999 279.160004
496830.239990 5419062.709999 279.239990
496830.220001 5419062.290001 279.299988
496830.200012 5419061.860001 279.360016
496830.170013 5419061.439999 279.429993
496830.149994 5419060.989998 279.690002
496830.140015 5419060.610001 279.489990
496830.119995 5419060.180000 279.540009
496830.100006 5419059.770000 279.610016
496830.079987 5419059.340000 279.669983
496830.059998 5419058.919998 279.720001
496830.040009 5419058.500000 279.760010
496830.019989 5419058.079998 279.830017
496830.000000 5419057.649998 279.880005
496829.980011 5419057.239998 279.970001
496829.950012 5419056.810001 280.019989
496830.660004 5419056.439999 280.309998
496830.679993 5419056.860001 280.260010
496830.700012 5419057.290001 280.209991
496830.720001 5419057.730000 280.149994
496830.750000 5419058.160000 280.080017
496830.769989 5419058.579998 280.029999
496830.790009 5419059.020000 279.970001
496830.809998 5419059.450001 279.919983
496830.829987 5419059.869999 279.860016
496830.850006 5419060.310001 279.830017
496830.869995 5419060.739998 279.760010
496830.890015 5419061.160000 279.709991
496830.910004 5419061.590000 279.660004
496830.940002 5419062.029999 279.580017
496830.959991 5419062.450001 279.510010
496830.980011 5419062.880001 279.480011
496831.000000 5419063.310001 279.389984
496831.019989 5419063.730000 279.360016
496831.040009 5419064.159996 279.299988
496831.059998 5419064.589996 279.250000
496831.160004 5419065.330002 277.290009
496831.179993 5419065.730003 277.369995
496831.200012 5419066.139999 277.410004
496831.209991 5419066.550003 277.489990
496831.230011 5419066.970001 277.529999
496831.200012 5419067.199997 278.589996
496831.220001 5419067.629997 278.519989
496831.239990 5419068.059998 278.470001
496831.260010 5419068.470001 278.419983
496831.279999 5419068.900002 278.350006
496831.309998 5419069.330002 278.290009
496831.329987 5419069.739998 278.239990
496831.350006 5419070.169998 278.190002
496831.369995 5419070.599998 278.130005
496831.390015 5419071.010002 278.089996
496831.410004 5419071.440002 278.000000
496831.429993 5419071.870003 277.959991
496831.450012 5419072.300003 277.899994
496831.470001 5419072.709999 277.850006
496831.489990 5419073.139999 277.790009
496831.510010 5419073.559998 277.760010
496831.540009 5419073.989998 277.669983
496831.549988 5419074.400002 277.649994
496831.579987 5419074.820000 277.570007
496831.600006 5419075.250000 277.500000
496831.619995 5419075.660004 277.489990
496831.640015 5419076.080002 277.410004
496832.029999 5419075.889999 277.600006
496832.010010 5419075.470001 277.630005
496831.989990 5419075.059998 277.720001
496831.980011 5419074.650002 277.739990
496831.959991 5419074.230003 277.779999
496831.940002 5419073.809998 277.850006
496831.920013 5419073.400002 277.899994
496831.899994 5419072.970001 277.980011
496831.880005 5419072.559998 278.000000
496831.859985 5419072.150002 278.080017
496831.839996 5419071.730003 278.130005
496831.820007 5419071.300003 278.169983
496831.799988 5419070.889999 278.239990
496831.779999 5419070.470001 278.290009
496831.760010 5419070.050003 278.339996
496831.739990 5419069.629997 278.399994
496831.720001 5419069.209999 278.450012
496831.700012 5419068.790001 278.510010
496831.679993 5419068.370003 278.589996
496831.660004 5419067.949997 278.639984
496831.640015 5419067.520004 278.690002
496831.619995 5419067.089996 278.760010
496831.600006 5419066.690002 278.760010
496831.649994 5419066.510002 277.309998
496831.630005 5419066.099998 277.279999
496831.609985 5419065.690002 277.209991
496831.600006 5419065.300003 277.160004
496831.480011 5419064.510002 279.419983
496831.470001 5419064.089996 279.440002
496831.440002 5419063.669998 279.540009
496831.420013 5419063.250000 279.570007
496831.410004 5419062.820000 279.610016
496831.380005 5419062.399998 279.700012
496831.369995 5419061.980000 279.730011
496831.350006 5419061.549999 279.769989
496831.320007 5419061.130001 279.850006
496831.299988 5419060.700001 279.889984
496831.279999 5419060.279999 279.959991
496831.260010 5419059.849998 280.000000
496831.239990 5419059.430000 280.059998
496831.220001 5419059.000000 280.110016
496831.200012 5419058.560001 280.200012
496831.179993 5419058.139999 280.220001
496831.160004 5419057.720001 280.299988
496831.140015 5419057.290001 280.350006
496831.119995 5419056.849998 280.470001
496831.109985 5419056.450001 280.389984
496831.760010 5419056.139999 280.089996
496831.769989 5419056.540001 280.139984
496831.790009 5419056.959999 280.220001
496831.799988 5419057.380001 280.269989
496831.820007 5419057.779999 280.309998
496831.839996 5419058.200001 280.380005
496831.850006 5419058.610001 280.470001
496831.869995 5419059.040001 280.360016
496831.899994 5419059.480000 280.299988
496831.920013 5419059.910000 280.230011
496831.940002 5419060.340000 280.179993
496831.959991 5419060.770000 280.119995
496831.980011 5419061.189999 280.059998
496832.010010 5419061.649998 279.860016
496832.029999 5419062.079998 279.830017
496832.040009 5419062.480000 279.889984
496832.059998 5419062.899998 279.839996
496832.089996 5419063.329998 279.799988
496832.109985 5419063.750000 279.750000
496832.130005 5419064.190002 279.660004
496832.269989 5419065.059998 276.880005
496832.279999 5419065.459999 276.940002
496832.299988 5419065.870003 276.980011
496832.309998 5419066.290001 277.019989
496832.329987 5419066.680000 277.110016
496832.269989 5419066.790001 279.010010
496832.290009 5419067.220001 278.970001
496832.309998 5419067.650002 278.899994
496832.329987 5419068.059998 278.860016
496832.350006 5419068.489998 278.790009
496832.369995 5419068.919998 278.739990
496832.390015 5419069.340004 278.690002
496832.410004 5419069.760002 278.630005
496832.429993 5419070.190002 278.559998
496832.450012 5419070.620003 278.510010
496832.470001 5419071.029999 278.450012
496832.489990 5419071.459999 278.410004
496832.519989 5419071.889999 278.339996
496832.540009 5419072.300003 278.290009
496832.559998 5419072.730003 278.220001
496832.579987 5419073.150002 278.190002
496832.600006 5419073.570000 278.089996
496832.619995 5419073.989998 278.070007
496832.640015 5419074.410004 278.040009
496832.660004 5419074.830002 277.970001
496832.679993 5419075.239998 277.940002
496832.700012 5419075.660004 277.869995
496833.100006 5419075.330002 278.049988
496833.079987 5419074.930000 278.100006
496833.059998 5419074.510002 278.179993
496833.040009 5419074.090004 278.220001
496833.019989 5419073.690002 278.260010
496833.000000 5419073.279999 278.320007
496832.980011 5419072.860001 278.380005
496832.959991 5419072.440002 278.419983
496832.940002 5419072.020004 278.489990
496832.929993 5419071.620003 278.540009
496832.910004 5419071.199997 278.600006
496832.890015 5419070.779999 278.630005
496832.869995 5419070.379997 278.679993
496832.850006 5419069.959999 278.750000
496832.829987 5419069.540001 278.809998
496832.809998 5419069.129997 278.850006
496832.790009 5419068.709999 278.910004
496832.769989 5419068.300003 278.959991
496832.750000 5419067.889999 279.010010
496832.730011 5419067.470001 279.080017
496832.709991 5419067.050003 279.130005
496832.690002 5419066.639999 279.190002
496832.769989 5419066.599998 276.929993
496832.760010 5419066.190002 276.850006
496832.559998 5419064.070000 279.820007
496832.540009 5419063.649998 279.889984
496832.519989 5419063.239998 279.970001
496832.500000 5419062.810001 280.010010
496832.480011 5419062.389999 280.059998
496832.459991 5419061.980000 280.139984
496832.420013 5419061.130001 280.279999
496832.399994 5419060.730000 280.299988
496832.380005 5419060.310001 280.320007
496832.359985 5419059.869999 280.480011
496832.339996 5419059.480000 280.389984
496832.329987 5419059.070000 280.320007
496832.309998 5419058.669998 280.260010
496832.299988 5419058.250000 280.209991
496832.279999 5419057.860001 280.160004
496832.269989 5419057.450001 280.080017
496832.250000 5419057.040001 280.049988
496832.239990 5419056.630001 279.989990
496832.220001 5419056.230000 279.950012
496832.209991 5419055.820000 279.889984
496832.880005 5419055.459999 279.610016
496832.899994 5419055.880001 279.660004
496832.920013 5419056.290001 279.700012
496832.929993 5419056.700001 279.790009
496832.950012 5419057.130001 279.820007
496832.970001 5419057.529999 279.850006
496832.980011 5419057.950001 279.929993
496833.000000 5419058.369999 279.959991
496833.010010 5419058.770000 280.049988
496833.029999 5419059.189999 280.089996
496833.049988 5419059.599998 280.160004
496833.059998 5419060.000000 280.209991
496833.079987 5419060.419998 280.250000
496833.089996 5419060.829998 280.320007
496833.109985 5419061.239998 280.339996
496833.130005 5419061.649998 280.450012
496833.149994 5419062.090000 280.330017
496833.170013 5419062.509998 280.309998
496833.190002 5419062.930000 280.239990
496833.209991 5419063.369999 280.179993
496833.230011 5419063.799999 280.139984
496833.350006 5419065.970001 279.529999
496833.369995 5419066.400002 279.480011
496833.390015 5419066.830002 279.429993
496833.410004 5419067.239998 279.350006
496833.429993 5419067.669998 279.299988
496833.450012 5419068.099998 279.239990
496833.470001 5419068.520004 279.179993
496833.489990 5419068.949997 279.119995
496833.519989 5419069.379997 279.059998
496833.540009 5419069.800003 279.000000
496833.559998 5419070.220001 278.970001
496833.579987 5419070.639999 278.929993
496833.600006 5419071.070000 278.850006
496833.619995 5419071.500000 278.779999
496833.640015 5419071.910004 278.730011
496833.660004 5419072.340004 278.669983
496833.679993 5419072.760002 278.630005
496833.700012 5419073.169998 278.580017
496833.720001 5419073.599998 278.519989
496833.739990 5419074.020004 278.459991
496833.760010 5419074.430000 278.429993
496833.779999 5419074.849998 278.369995
496833.799988 5419075.279999 278.320007
496834.170013 5419074.900002 278.500000
496834.149994 5419074.489998 278.559998
496834.130005 5419074.080002 278.600006
496834.109985 5419073.660004 278.649994
496834.089996 5419073.250000 278.709991
496834.070007 5419072.840004 278.739990
496834.049988 5419072.410004 278.820007
496834.040009 5419072.010002 278.860016
496834.019989 5419071.590004 278.929993
496834.000000 5419071.169998 278.980011
496833.980011 5419070.760002 279.029999
496833.959991 5419070.340004 279.089996
496833.940002 5419069.919998 279.149994
496833.920013 5419069.500000 279.200012
496833.899994 5419069.090004 279.239990
496833.880005 5419068.669998 279.299988
496833.859985 5419068.250000 279.380005
496833.839996 5419067.830002 279.410004
496833.820007 5419067.419998 279.480011
496833.799988 5419066.989998 279.570007
496833.779999 5419066.570000 279.600006
496833.760010 5419066.159996 279.669983
496833.630005 5419063.590000 280.320007
496833.609985 5419063.169998 280.369995
496833.589996 5419062.739998 280.480011
496833.570007 5419062.340000 280.360016
496833.559998 5419061.950001 280.320007
496833.540009 5419061.540001 280.250000
496833.529999 5419061.130001 280.190002
496833.510010 5419060.720001 280.130005
496833.500000 5419060.329998 280.100006
496833.480011 5419059.919998 280.040009
496833.470001 5419059.509998 279.950012
496833.450012 5419059.110001 279.959991
496833.440002 5419058.700001 279.850006
496833.420013 5419058.290001 279.799988
496833.410004 5419057.899998 279.739990
496833.390015 5419057.480000 279.700012
496833.380005 5419057.070000 279.630005
496833.359985 5419056.669998 279.610016
496833.339996 5419056.259998 279.540009
496833.329987 5419055.849998 279.480011
496833.309998 5419055.430000 279.440002
496833.950012 5419055.279999 279.190002
496833.970001 5419055.709999 279.239990
496833.989990 5419056.119999 279.309998
496834.000000 5419056.529999 279.350006
496834.019989 5419056.959999 279.380005
496834.040009 5419057.369999 279.450012
496834.049988 5419057.790001 279.500000
496834.070007 5419058.209999 279.570007
496834.089996 5419058.610001 279.619995
496834.100006 5419059.020000 279.690002
496834.119995 5419059.439999 279.739990
496834.130005 5419059.840000 279.809998
496834.149994 5419060.259998 279.839996
496834.170013 5419060.680000 279.880005
496834.179993 5419061.079998 279.970001
496834.200012 5419061.489998 280.010010
496834.209991 5419061.899998 280.089996
496834.230011 5419062.310001 280.119995
496834.250000 5419062.720001 280.160004
496834.260010 5419063.139999 280.239990
496834.279999 5419063.540001 280.260010
496834.390015 5419065.699997 279.830017
496834.399994 5419066.110001 279.919983
496834.429993 5419066.540001 279.850006
496834.450012 5419066.959999 279.760010
496834.470001 5419067.389999 279.700012
496834.489990 5419067.809998 279.649994
496834.510010 5419068.230003 279.589996
496834.529999 5419068.660004 279.510010
496834.549988 5419069.090004 279.480011
496834.570007 5419069.500000 279.419983
496834.589996 5419069.919998 279.380005
496834.609985 5419070.349998 279.320007
496834.630005 5419070.760002 279.260010
496834.649994 5419071.190002 279.200012
496834.670013 5419071.610001 279.179993
496834.690002 5419072.040001 279.080017
496834.709991 5419072.449997 279.049988
496834.730011 5419072.879997 278.980011
496834.760010 5419073.309998 278.910004
496834.779999 5419073.730003 278.880005
496834.790009 5419074.139999 278.839996
496834.820007 5419074.559998 278.769989
496835.220001 5419074.650002 278.899994
496835.200012 5419074.239998 278.950012
496835.179993 5419073.809998 279.010010
496835.160004 5419073.379997 279.070007
496835.140015 5419072.970001 279.110016
496835.119995 5419072.540001 279.179993
496835.100006 5419072.110001 279.230011
496835.079987 5419071.680000 279.299988
496835.059998 5419071.250000 279.339996
496835.040009 5419070.830002 279.399994
496835.019989 5419070.410004 279.440002
496835.000000 5419069.980003 279.489990
496834.980011 5419069.559998 279.570007
496834.959991 5419069.129997 279.630005
496834.940002 5419068.690002 279.679993
496834.920013 5419068.270004 279.769989
496834.899994 5419067.849998 279.779999
496834.880005 5419067.400002 279.929993
496834.859985 5419067.000000 279.860016
496834.850006 5419066.589996 279.769989
496834.829987 5419066.180000 279.720001
496834.820007 5419065.779999 279.649994
496834.809998 5419065.370003 279.589996
496834.700012 5419063.180000 280.070007
496834.679993 5419062.759998 280.029999
496834.660004 5419062.349998 279.989990
496834.649994 5419061.939999 279.910004
496834.630005 5419061.520000 279.850006
496834.619995 5419061.119999 279.799988
496834.600006 5419060.700001 279.750000
496834.589996 5419060.279999 279.690002
496834.570007 5419059.869999 279.639984
496834.559998 5419059.459999 279.549988
496834.540009 5419059.029999 279.519989
496834.529999 5419058.630001 279.480011
496834.510010 5419058.209999 279.399994
496834.500000 5419057.790001 279.339996
496834.480011 5419057.369999 279.299988
496834.459991 5419056.959999 279.239990
496834.450012 5419056.529999 279.200012
496834.429993 5419056.110001 279.139984
496834.420013 5419055.689999 279.059998
496834.399994 5419055.279999 279.040009
496834.380005 5419054.860001 278.959991
496835.040009 5419054.709999 278.730011
496835.059998 5419055.119999 278.760010
496835.070007 5419055.540001 278.809998
496835.089996 5419055.959999 278.869995
496835.100006 5419056.369999 278.919983
496835.119995 5419056.779999 278.970001
496835.140015 5419057.200001 279.049988
496835.149994 5419057.610001 279.080017
496835.170013 5419058.020000 279.200012
496835.179993 5419058.419998 279.360016
496835.190002 5419058.810001 279.489990
496835.209991 5419059.230000 279.549988
496835.230011 5419059.680000 279.380005
496835.250000 5419060.099998 279.410004
496835.260010 5419060.500000 279.480011
496835.279999 5419060.910000 279.549988
496835.299988 5419061.329998 279.589996
496835.309998 5419061.739998 279.649994
496835.329987 5419062.139999 279.739990
496835.350006 5419062.560001 279.730011
496835.359985 5419062.980000 279.790009
496835.470001 5419065.129997 279.320007
496835.489990 5419065.540001 279.410004
496835.510010 5419065.940002 279.419983
496835.519989 5419066.349998 279.500000
496835.540009 5419066.760002 279.540009
496835.549988 5419067.169998 279.610016
496835.570007 5419067.570000 279.649994
496835.579987 5419067.970001 279.730011
496835.600006 5419068.389999 279.760010
496835.609985 5419068.790001 279.860016
496835.630005 5419069.190002 279.910004
496835.649994 5419069.620003 279.790009
496835.670013 5419070.050003 279.760010
496835.690002 5419070.459999 279.679993
496835.709991 5419070.889999 279.639984
496835.730011 5419071.309998 279.570007
496835.760010 5419071.730003 279.500000
496835.769989 5419072.150002 279.470001
496835.799988 5419072.580002 279.410004
496835.820007 5419072.989998 279.339996
496835.839996 5419073.410004 279.290009
496835.859985 5419073.840004 279.209991
496835.880005 5419074.260002 279.190002
496836.269989 5419074.250000 279.330017
496836.250000 5419073.840004 279.369995
496836.230011 5419073.430000 279.429993
496836.220001 5419073.020004 279.480011
496836.200012 5419072.599998 279.540009
496836.179993 5419072.180000 279.600006
496836.160004 5419071.779999 279.639984
496836.140015 5419071.360001 279.720001
496836.119995 5419070.949997 279.750000
496836.100006 5419070.529999 279.820007
496836.079987 5419070.120003 279.919983
496836.070007 5419069.720001 279.809998
496836.049988 5419069.320000 279.760010
496836.040009 5419068.930000 279.730011
496836.019989 5419068.540001 279.649994
496836.010010 5419068.129997 279.600006
496835.989990 5419067.750000 279.529999
496835.980011 5419067.340004 279.510010
496835.959991 5419066.940002 279.410004
496835.950012 5419066.550003 279.389984
496835.929993 5419066.150002 279.320007
496835.920013 5419065.739998 279.279999
496835.899994 5419065.339996 279.200012
496835.890015 5419064.949997 279.149994
496835.779999 5419062.820000 279.639984
496835.769989 5419062.410000 279.600006
496835.750000 5419062.009998 279.549988
496835.739990 5419061.610001 279.510010
496835.720001 5419061.200001 279.419983
496835.709991 5419060.810001 279.399994
496835.690002 5419060.399998 279.309998
496835.679993 5419059.989998 279.250000
496835.660004 5419059.570000 279.380005
496835.630005 5419059.130001 279.519989
496835.619995 5419058.720001 279.489990
496835.600006 5419058.320000 279.360016
496835.589996 5419057.939999 279.220001
496835.579987 5419057.540001 279.080017
496835.570007 5419057.149998 278.889984
496835.559998 5419056.739998 278.839996
496835.540009 5419056.349998 278.750000
496835.529999 5419055.930000 278.720001
496835.510010 5419055.520000 278.660004
496835.500000 5419055.119999 278.619995
496835.480011 5419054.700001 278.549988
496836.089996 5419054.369999 278.299988
496836.100006 5419054.810001 278.360016
496836.119995 5419055.220001 278.410004
496836.140015 5419055.649998 278.489990
496836.149994 5419056.079998 278.519989
496836.170013 5419056.489998 278.589996
496836.179993 5419056.919998 278.679993
496836.190002 5419057.290001 279.089996
496836.200012 5419057.689999 279.230011
496836.209991 5419058.110001 279.369995
496836.220001 5419058.520000 279.510010
496836.239990 5419058.939999 279.489990
496836.269989 5419059.399998 279.360016
496836.290009 5419059.860001 279.190002
496836.320007 5419060.299999 279.080017
496836.329987 5419060.720001 279.139984
496836.350006 5419061.139999 279.250000
496836.369995 5419061.570000 279.260010
496836.380005 5419061.980000 279.320007
496836.399994 5419062.399998 279.369995
496836.529999 5419065.019997 278.970001
496836.540009 5419065.449997 279.010010
496836.559998 5419065.870003 279.059998
496836.579987 5419066.279999 279.100006
496836.589996 5419066.690002 279.179993
496836.609985 5419067.110001 279.230011
496836.619995 5419067.520004 279.290009
496836.640015 5419067.940002 279.309998
496836.660004 5419068.349998 279.399994
496836.670013 5419068.770004 279.450012
496836.690002 5419069.169998 279.519989
496836.700012 5419069.590004 279.559998
496836.720001 5419070.010002 279.610016
496836.739990 5419070.419998 279.660004
496836.750000 5419070.830002 279.700012
496836.769989 5419071.239998 279.769989
496836.779999 5419071.639999 279.899994
496836.799988 5419072.050003 279.889984
496836.820007 5419072.489998 279.769989
496836.839996 5419072.930000 279.720001
496836.859985 5419073.349998 279.669983
496836.880005 5419073.770004 279.619995
496837.279999 5419073.720001 279.760010
496837.260010 5419073.320000 279.830017
496837.239990 5419072.900002 279.919983
496837.230011 5419072.510002 279.820007
496837.209991 5419072.129997 279.750000
496837.200012 5419071.720001 279.720001
496837.179993 5419071.330002 279.649994
496837.170013 5419070.940002 279.600006
496837.149994 5419070.550003 279.519989
496837.140015 5419070.139999 279.500000
496837.119995 5419069.739998 279.429993
496837.109985 5419069.349998 279.380005
496837.100006 5419068.949997 279.320007
496837.079987 5419068.550003 279.279999
496837.070007 5419068.150002 279.200012
496837.049988 5419067.760002 279.169983
496837.040009 5419067.360001 279.110016
496837.019989 5419066.959999 279.040009
496837.010010 5419066.570000 279.000000
496836.989990 5419066.159996 278.940002
496836.980011 5419065.760002 278.889984
496836.959991 5419065.370003 278.830017
496836.950012 5419064.959999 278.790009
496836.929993 5419064.559998 278.720001
496836.829987 5419062.430000 279.220001
496836.809998 5419062.020000 279.149994
496836.790009 5419061.599998 279.190002
496836.779999 5419061.209999 279.049988
496836.769989 5419060.810001 278.989990
496836.750000 5419060.399998 278.940002
496836.730011 5419059.970001 279.049988
496836.709991 5419059.540001 279.250000
496836.679993 5419059.099998 279.380005
496836.660004 5419058.649998 279.580017
496836.640015 5419058.259998 279.489990
496836.630005 5419057.860001 279.360016
496836.619995 5419057.459999 279.209991
496836.609985 5419057.079998 279.070007
496836.619995 5419056.750000 278.459991
496836.600006 5419056.329998 278.399994
496836.589996 5419055.939999 278.339996
496836.570007 5419055.520000 278.290009
496836.559998 5419055.110001 278.239990
496836.540009 5419054.700001 278.169983
496836.529999 5419054.279999 278.130005
496836.510010 5419053.880001 278.049988
496837.149994 5419053.720001 277.830017
496837.170013 5419054.130001 277.889984
496837.179993 5419054.549999 277.929993
496837.200012 5419054.970001 277.989990
496837.209991 5419055.380001 278.040009
496837.230011 5419055.799999 278.089996
496837.250000 5419056.220001 278.169983
496837.230011 5419056.520000 278.940002
496837.239990 5419056.919998 279.119995
496837.260010 5419057.329998 279.269989
496837.269989 5419057.730000 279.419983
496837.279999 5419058.119999 279.549988
496837.299988 5419058.560001 279.489990
496837.329987 5419059.009998 279.330017
496837.350006 5419059.459999 279.169983
496837.380005 5419059.899998 279.010010
496837.410004 5419060.360001 278.750000
496837.420013 5419060.779999 278.760010
496837.440002 5419061.180000 278.850006
496837.459991 5419061.599998 278.860016
496837.470001 5419062.020000 278.899994
496837.579987 5419064.180000 278.410004
496837.600006 5419064.589996 278.519989
496837.609985 5419065.000000 278.559998
496837.630005 5419065.400002 278.610016
496837.649994 5419065.809998 278.669983
496837.660004 5419066.230003 278.709991
496837.679993 5419066.639999 278.779999
496837.690002 5419067.040001 278.830017
496837.709991 5419067.449997 278.880005
496837.720001 5419067.860001 278.940002
496837.739990 5419068.260002 278.989990
496837.760010 5419068.660004 279.059998
496837.769989 5419069.070000 279.100006
496837.790009 5419069.470001 279.149994
496837.799988 5419069.879997 279.200012
496837.820007 5419070.279999 279.269989
496837.829987 5419070.680000 279.309998
496837.850006 5419071.090004 279.380005
496837.869995 5419071.489998 279.429993
496837.880005 5419071.889999 279.500000
496837.899994 5419072.290001 279.540009
496837.910004 5419072.690002 279.589996
496837.929993 5419073.090004 279.669983
496837.940002 5419073.500000 279.730011
496838.329987 5419073.150002 279.529999
496838.320007 5419072.760002 279.450012
496838.299988 5419072.349998 279.429993
496838.290009 5419071.970001 279.350006
496838.269989 5419071.570000 279.309998
496838.260010 5419071.180000 279.220001
496838.239990 5419070.779999 279.209991
496838.230011 5419070.379997 279.139984
496838.209991 5419069.980003 279.089996
496838.200012 5419069.590004 279.040009
496838.179993 5419069.180000 278.989990
496838.170013 5419068.779999 278.919983
496838.160004 5419068.389999 278.869995
496838.140015 5419067.989998 278.809998
496838.130005 5419067.580002 278.750000
496838.109985 5419067.180000 278.690002
496838.100006 5419066.779999 278.660004
496838.079987 5419066.379997 278.589996
496838.070007 5419065.970001 278.549988
496838.049988 5419065.570000 278.480011
496838.040009 5419065.169998 278.440002
496838.019989 5419064.769997 278.389984
496838.010010 5419064.360001 278.330017
496837.880005 5419061.810001 278.769989
496837.869995 5419061.410000 278.700012
496837.859985 5419061.000000 278.649994
496837.839996 5419060.590000 278.589996
496837.820007 5419060.180000 278.540009
496837.790009 5419059.700001 279.019989
496837.760010 5419059.250000 279.179993
496837.739990 5419058.810001 279.369995
496837.720001 5419058.369999 279.510010
496837.700012 5419057.950001 279.540009
496837.690002 5419057.549999 279.399994
496837.670013 5419057.149998 279.269989
496837.660004 5419056.759998 279.119995
496837.649994 5419056.369999 278.940002
496837.670013 5419056.079998 278.000000
496837.660004 5419055.680000 277.929993
496837.640015 5419055.259998 277.889984
496837.630005 5419054.849998 277.820007
496837.609985 5419054.439999 277.799988
496837.600006 5419054.029999 277.720001
496837.579987 5419053.619999 277.639984
496838.279999 5419053.720001 275.410004
496838.290009 5419054.119999 275.669983
496838.299988 5419054.540001 275.679993
496838.320007 5419054.959999 275.690002
496838.269989 5419055.130001 277.549988
496838.279999 5419055.520000 277.690002
496838.290009 5419055.939999 277.730011
496838.260010 5419056.189999 278.989990
496838.269989 5419056.570000 279.149994
496838.290009 5419056.980000 279.279999
496838.299988 5419057.380001 279.450012
496838.309998 5419057.759998 279.639984
496838.329987 5419058.220001 279.459991
496838.359985 5419058.669998 279.290009
496838.380005 5419059.099998 279.160004
496838.410004 5419059.560001 278.919983
496838.459991 5419060.079998 278.279999
496838.470001 5419060.489998 278.360016
496838.480011 5419060.889999 278.429993
496838.500000 5419061.310001 278.459991
496838.519989 5419061.730000 278.519989
496838.630005 5419063.889999 278.029999
496838.649994 5419064.309998 278.070007
496838.660004 5419064.720001 278.130005
496838.679993 5419065.120003 278.179993
496838.690002 5419065.529999 278.239990
496838.709991 5419065.940002 278.299988
496838.720001 5419066.339996 278.350006
496838.739990 5419066.750000 278.419983
496838.750000 5419067.159996 278.470001
496838.769989 5419067.570000 278.519989
496838.790009 5419067.970001 278.570007
496838.799988 5419068.370003 278.639984
496838.820007 5419068.779999 278.690002
496838.829987 5419069.190002 278.750000
496838.850006 5419069.590004 278.779999
496838.859985 5419069.989998 278.860016
496838.880005 5419070.400002 278.889984
496838.899994 5419070.790001 278.959991
496838.910004 5419071.209999 278.980011
496838.929993 5419071.610001 279.059998
496838.940002 5419071.989998 279.200012
496838.950012 5419072.389999 279.269989
496838.970001 5419072.809998 279.220001
496839.369995 5419072.779999 279.080017
496839.350006 5419072.379997 279.049988
496839.339996 5419071.970001 278.989990
496839.320007 5419071.559998 278.929993
496839.309998 5419071.169998 278.880005
496839.299988 5419070.760002 278.809998
496839.279999 5419070.340004 278.760010
496839.260010 5419069.940002 278.720001
496839.250000 5419069.529999 278.660004
496839.239990 5419069.120003 278.589996
496839.220001 5419068.720001 278.549988
496839.200012 5419068.309998 278.489990
496839.190002 5419067.900002 278.419983
496839.170013 5419067.480003 278.389984
496839.160004 5419067.080002 278.330017
496839.140015 5419066.659996 278.279999
496839.130005 5419066.250000 278.200012
496839.109985 5419065.830002 278.149994
496839.100006 5419065.430000 278.089996
496839.079987 5419065.019997 278.019989
496839.070007 5419064.599998 277.980011
496839.049988 5419064.199997 277.929993
496839.040009 5419063.779999 277.889984
496838.929993 5419061.599998 278.350006
496838.920013 5419061.180000 278.279999
496838.899994 5419060.759998 278.250000
496838.890015 5419060.340000 278.179993
496838.869995 5419059.939999 278.130005
496838.820007 5419059.380001 278.970001
496838.790009 5419058.919998 279.149994
496838.769989 5419058.470001 279.299988
496838.739990 5419058.029999 279.500000
496838.720001 5419057.570000 279.649994
496838.709991 5419057.169998 279.470001
496838.869995 5419057.750000 275.630005
496838.850006 5419057.320000 275.679993
496838.829987 5419056.880001 275.669983
496838.790009 5419056.029999 275.690002
496838.769989 5419055.590000 275.709991
496838.760010 5419055.169998 275.690002
496838.739990 5419054.739998 275.709991
496838.720001 5419054.310001 275.679993
496838.700012 5419053.880001 275.639984
496839.260010 5419053.369999 275.600006
496839.279999 5419053.790001 275.690002
496839.290009 5419054.220001 275.739990
496839.309998 5419054.649998 275.709991
496839.329987 5419055.079998 275.700012
496839.350006 5419055.509998 275.720001
496839.369995 5419055.939999 275.700012
496839.390015 5419056.380001 275.660004
496839.410004 5419056.799999 275.700012
496839.429993 5419057.239998 275.690002
496839.440002 5419057.660000 275.679993
496839.459991 5419058.090000 275.669983
496839.480011 5419058.520000 275.679993
496839.500000 5419058.959999 275.669983
496839.380005 5419058.860001 279.049988
496839.450012 5419059.480000 277.850006
496839.459991 5419059.889999 277.940002
496839.480011 5419060.310001 277.950012
496839.500000 5419060.720001 278.029999
496839.510010 5419061.139999 278.089996
496839.640015 5419063.750000 277.639984
496839.649994 5419064.159996 277.720001
496839.670013 5419064.570000 277.750000
496839.690002 5419064.980003 277.830017
496839.700012 5419065.400002 277.869995
496839.720001 5419065.809998 277.919983
496839.730011 5419066.220001 277.970001
496839.750000 5419066.629997 278.049988
496839.769989 5419067.050003 278.070007
496839.779999 5419067.440002 278.149994
496839.799988 5419067.849998 278.209991
496839.809998 5419068.270004 278.260010
496839.829987 5419068.669998 278.330017
496839.839996 5419069.080002 278.360016
496839.859985 5419069.489998 278.429993
496839.869995 5419069.889999 278.500000
496839.890015 5419070.300003 278.540009
496839.910004 5419070.709999 278.600006
496839.920013 5419071.110001 278.630005
496839.940002 5419071.510002 278.720001
496839.950012 5419071.930000 278.739990
496839.970001 5419072.330002 278.850006
496839.980011 5419072.730003 278.860016
496840.369995 5419072.260002 278.639984
496840.350006 5419071.870003 278.630005
496840.299988 5419071.010002 279.110016
496840.309998 5419070.720001 278.440002
496840.299988 5419070.330002 278.410004
496840.279999 5419069.959999 278.339996
496840.269989 5419069.570000 278.299988
496840.260010 5419069.190002 278.209991
496840.239990 5419068.800003 278.179993
496840.230011 5419068.419998 278.100006
496840.209991 5419068.029999 278.080017
496840.200012 5419067.639999 278.019989
496840.179993 5419067.239998 277.989990
496840.170013 5419066.870003 277.910004
496840.160004 5419066.470001 277.860016
496840.140015 5419066.080002 277.809998
496840.130005 5419065.709999 277.730011
496840.109985 5419065.309998 277.720001
496840.100006 5419064.919998 277.630005
496840.089996 5419064.540001 277.589996
496840.070007 5419064.139999 277.540009
496840.059998 5419063.739998 277.510010
496840.040009 5419063.360001 277.440002
496839.929993 5419060.880001 277.880005
496839.910004 5419060.480000 277.830017
496839.899994 5419060.099998 277.779999
496839.880005 5419059.700001 277.739990
496839.869995 5419059.299999 277.700012
496839.859985 5419058.919998 277.570007
496839.920013 5419058.790001 275.700012
496839.899994 5419058.380001 275.709991
496839.880005 5419057.989998 275.690002
496839.869995 5419057.579998 275.690002
496839.850006 5419057.169998 275.690002
496839.829987 5419056.770000 275.679993
496839.820007 5419056.360001 275.690002
496839.799988 5419055.950001 275.700012
496839.779999 5419055.540001 275.669983
496839.769989 5419055.139999 275.709991
496839.750000 5419054.730000 275.709991
496839.730011 5419054.320000 275.700012
496839.720001 5419053.910000 275.660004
496839.700012 5419053.509998 275.660004
496840.369995 5419054.579998 275.679993
496840.390015 5419055.009998 275.669983
496840.410004 5419055.439999 275.669983
496840.429993 5419055.860001 275.669983
496840.440002 5419056.279999 275.700012
496840.459991 5419056.709999 275.690002
496840.480011 5419057.130001 275.690002
496840.500000 5419057.560001 275.700012
496840.519989 5419057.989998 275.690002
496840.529999 5419058.410000 275.709991
496840.549988 5419058.820000 275.700012
496840.570007 5419059.259998 275.679993
496840.589996 5419059.680000 275.700012
496840.609985 5419060.110001 275.660004
496840.559998 5419060.660000 277.580017
496840.690002 5419063.230000 277.209991
496840.700012 5419063.649998 277.260010
496840.720001 5419064.050003 277.320007
496840.730011 5419064.459999 277.369995
496840.750000 5419064.879997 277.429993
496840.769989 5419065.279999 277.500000
496840.779999 5419065.680000 277.559998
496840.799988 5419066.099998 277.600006
496840.809998 5419066.510002 277.649994
496840.829987 5419066.919998 277.700012
496840.839996 5419067.320000 277.760010
496840.859985 5419067.730003 277.830017
496840.880005 5419068.139999 277.850006
496840.890015 5419068.540001 277.919983
496840.910004 5419068.940002 277.980011
496840.920013 5419069.349998 278.040009
496840.940002 5419069.750000 278.089996
496840.950012 5419070.150002 278.149994
496840.970001 5419070.559998 278.200012
496840.980011 5419070.949997 278.260010
496841.000000 5419071.360001 278.299988
496841.010010 5419071.760002 278.389984
496841.029999 5419072.160004 278.419983
496841.420013 5419072.029999 278.260010
496841.410004 5419071.620003 278.209991
496841.390015 5419071.220001 278.160004
496841.380005 5419070.809998 278.080017
496841.359985 5419070.400002 278.040009
496841.350006 5419069.989998 277.970001
496841.329987 5419069.580002 277.919983
496841.320007 5419069.169998 277.860016
496841.299988 5419068.760002 277.790009
496841.290009 5419068.360001 277.739990
496841.269989 5419067.949997 277.690002
496841.260010 5419067.529999 277.649994
496841.239990 5419067.129997 277.589996
496841.230011 5419066.720001 277.519989
496841.209991 5419066.300003 277.480011
496841.200012 5419065.900002 277.389984
496841.190002 5419065.480003 277.360016
496841.170013 5419065.059998 277.299988
496841.160004 5419064.659996 277.250000
496841.140015 5419064.239998 277.179993
496841.119995 5419063.820000 277.130005
496841.109985 5419063.399998 277.089996
496841.089996 5419063.000000 277.019989
496841.029999 5419060.239998 275.639984
496841.010010 5419059.799999 275.669983
496840.989990 5419059.369999 275.679993
496840.970001 5419058.959999 275.679993
496840.959991 5419058.520000 275.690002
496840.940002 5419058.090000 275.679993
496840.920013 5419057.669998 275.669983
496840.910004 5419057.239998 275.660004
496840.890015 5419056.810001 275.679993
496840.869995 5419056.380001 275.660004
496840.850006 5419055.939999 275.679993
496840.829987 5419055.520000 275.669983
496841.500000 5419056.919998 275.649994
496841.519989 5419057.360001 275.669983
496841.540009 5419057.779999 275.669983
496841.559998 5419058.220001 275.679993
496841.570007 5419058.660000 275.679993
496841.589996 5419059.079998 275.679993
496841.609985 5419059.520000 275.660004
496841.630005 5419059.959999 275.639984
496841.779999 5419064.480003 276.950012
496841.790009 5419064.870003 277.070007
496841.809998 5419065.300003 277.110016
496841.820007 5419065.720001 277.190002
496841.839996 5419066.120003 277.230011
496841.859985 5419066.540001 277.299988
496841.869995 5419066.970001 277.320007
496841.890015 5419067.370003 277.399994
496841.899994 5419067.790001 277.450012
496841.920013 5419068.209999 277.510010
496841.929993 5419068.610001 277.559998
496841.950012 5419069.029999 277.630005
496841.970001 5419069.440002 277.679993
496841.980011 5419069.840004 277.730011
496842.000000 5419070.260002 277.779999
496842.010010 5419070.680000 277.860016
496842.029999 5419071.090004 277.899994
496842.040009 5419071.489998 277.959991
496842.440002 5419071.620003 277.860016
496842.429993 5419071.220001 277.769989
496842.410004 5419070.809998 277.769989
496842.399994 5419070.440002 277.660004
496842.380005 5419070.029999 277.639984
496842.369995 5419069.629997 277.570007
496842.350006 5419069.239998 277.529999
496842.339996 5419068.849998 277.440002
496842.320007 5419068.440002 277.399994
496842.309998 5419068.059998 277.320007
496842.299988 5419067.650002 277.290009
496842.279999 5419067.250000 277.250000
496842.269989 5419066.860001 277.200012
496842.250000 5419066.449997 277.130005
496842.239990 5419066.050003 277.089996
496842.220001 5419065.650002 276.980011
496842.029999 5419059.669998 275.660004
496842.010010 5419059.250000 275.669983
496841.989990 5419058.840000 275.669983
496841.970001 5419058.419998 275.679993
496842.920013 5419066.120003 276.830017
496842.940002 5419066.510002 276.910004
496842.950012 5419066.930000 276.970001
496842.970001 5419067.340004 277.019989
496842.980011 5419067.750000 277.059998
496843.000000 5419068.150002 277.149994
